0 0 0
0.4 -3.68196e-017 -1.57148e-036
0.8 -3.22824e-016 -5.85258e-034
1.2 3.42369e-016 -1.78094e-033
1.6 3.05971e-016 -2.99852e-033
2 -9.25501e-017 -4.97047e-034
2.4 0 0
2.8 0 0
3.2 1.59336e-016 -4.65008e-033
3.6 -1.61264e-016 -5.80636e-033
0.263637 0.263637 -3.71541e-005
0.595819 0.235489 -0.000174628
0.932102 0.211313 -0.000396658
1.27191 0.190771 -0.000691034
1.61474 0.173608 -0.00105008
1.96017 0.159644 -0.00146978
2.30785 0.148763 -0.0019492
2.65744 0.140908 -0.00249027
3.00866 0.136081 -0.00309776
3.36125 0.134347 -0.00377947
0.486839 0.486839 -0.000530868
0.764638 0.444034 -0.00120779
1.04769 0.406397 -0.00210673
1.33537 0.373576 -0.00320209
1.62713 0.345296 -0.00447757
1.9225 0.321352 -0.00592462
2.22103 0.301597 -0.00754154
2.52235 0.285942 -0.00933293
2.82611 0.274353 -0.0113097
3.13197 0.26685 -0.0134892
0.681941 0.681941 -0.00241459
0.913928 0.633174 -0.00402322
1.15086 0.589335 -0.00595344
1.39227 0.55016 -0.00817677
1.63771 0.515432 -0.0106749
1.8868 0.484977 -0.0134384
2.13916 0.458662 -0.0164658
2.39448 0.436391 -0.0197629
2.65244 0.418104 -0.0233432
2.91276 0.403773 -0.0272276
0.856995 0.856995 -0.00689372
1.04871 0.807915 -0.00965715
1.24445 0.762873 -0.0127779
1.44392 0.721695 -0.0162328
1.64682 0.684236 -0.0200072
1.85288 0.65037 -0.0240934
2.06184 0.619995 -0.0284909
2.27349 0.593026 -0.0332054
2.48759 0.569397 -0.0382489
2.70394 0.54906 -0.0436402
1.0172 1.0172 -0.0152786
1.1723 0.971536 -0.0191761
1.33036 0.928818 -0.0234071
1.49119 0.888944 -0.0279571
1.65462 0.851826 -0.0328166
1.82051 0.817384 -0.0379814
1.98869 0.785548 -0.0434515
2.15903 0.756256 -0.0492314
2.3314 0.729453 -0.0553301
2.50566 0.705091 -0.0617608
1.16582 1.16582 -0.0288894
1.28684 1.12612 -0.0336294
1.40979 1.08833 -0.0386367
1.5346 1.05239 -0.0439042
1.66117 1.01825 -0.0494276
1.78944 0.985874 -0.0552051
1.91932 0.955217 -0.0612372
2.05075 0.92624 -0.0675268
2.18366 0.898909 -0.0740792
2.31797 0.873188 -0.080902
1.30482 1.30482 -0.049003
1.39359 1.27294 -0.0540222
1.48347 1.24211 -0.0592214
1.57442 1.2123 -0.0645981
1.6664 1.18351 -0.0701511
1.75939 1.1557 -0.07588
1.85336 1.12886 -0.0817852
1.94828 1.10297 -0.0878684
2.04412 1.078 -0.094132
2.14084 1.05395 -0.100579
1.43527 1.43527 -0.0768256
1.49326 1.41268 -0.0813025
1.55174 1.39054 -0.0858723
1.6107 1.36884 -0.0905345
1.67015 1.34757 -0.0952891
1.73005 1.32673 -0.100136
1.79042 1.30631 -0.105076
1.85124 1.28631 -0.110108
1.91251 1.26671 -0.115235
1.97421 1.24751 -0.120457
1.55764 1.55764 -0.113479
1.58608 1.54568 -0.116355
1.61464 1.53382 -0.119257
1.64333 1.52207 -0.122185
1.67213 1.51041 -0.125139
1.70106 1.49886 -0.12812
1.73011 1.48741 -0.131128
1.75928 1.47606 -0.134162
1.78856 1.46481 -0.137223
1.81797 1.45365 -0.14031
4 0 0
4 0.19 -0.01
4 0.36 -0.04
4 0.51 -0.09
4 0.64 -0.16
4 0.75 -0.25
4 0.84 -0.36
4 0.91 -0.49
4 0.96 -0.64
4 0.99 -0.81
3.71496 0.135829 -0.00454672
3.72032 0.294293 -0.0230621
3.72537 0.440599 -0.0560925
3.72988 0.574265 -0.103867
3.7336 0.694892 -0.166578
3.7363 0.802153 -0.244384
3.73771 0.895782 -0.337422
3.73754 0.97556 -0.445809
3.73545 1.04132 -0.569646
3.73105 1.09292 -0.709022
3.43965 0.263507 -0.0158965
3.44934 0.399564 -0.0388356
3.45831 0.528022 -0.0722692
3.46632 0.648387 -0.116469
3.47309 0.760239 -0.17167
3.4783 0.863217 -0.238074
3.48164 0.957019 -0.315861
3.48275 1.04139 -0.405186
3.48121 1.11613 -0.50619
3.47656 1.18109 -0.619
3.17519 0.393404 -0.0314453
3.18786 0.511779 -0.0559446
3.19955 0.625285 -0.0879324
3.21003 0.733561 -0.127643
3.21908 0.836289 -0.175285
3.22642 0.93319 -0.231044
3.23177 1.02402 -0.295088
3.2348 1.10858 -0.367569
3.23516 1.18669 -0.448625
3.23245 1.25822 -0.538384
2.92236 0.53198 -0.0494045
2.93659 0.634734 -0.0734289
2.94975 0.734328 -0.102663
2.96167 0.830544 -0.137279
2.97218 0.923185 -0.177433
2.98108 1.01207 -0.223268
2.98816 1.09704 -0.274919
2.99318 1.17797 -0.332506
2.99588 1.25472 -0.396147
2.99598 1.32721 -0.465948
2.6817 0.683128 -0.068541
2.69614 0.770743 -0.0906176
2.70957 0.856331 -0.116168
2.72189 0.939781 -0.145301
2.73298 1.02099 -0.178121
2.74274 1.09986 -0.214724
2.75101 1.1763 -0.2552
2.75764 1.25024 -0.299637
2.76248 1.32161 -0.348115
2.76533 1.39035 -0.400714
2.45363 0.849044 -0.088005
2.46701 0.921111 -0.107044
2.47959 0.991939 -0.128242
2.49129 1.06148 -0.151661
2.50206 1.1297 -0.177359
2.51184 1.19654 -0.205391
2.52054 1.26197 -0.235811
2.52809 1.32596 -0.26867
2.53439 1.38846 -0.304017
2.53935 1.44946 -0.341901
2.23844 1.03079 -0.107214
2.24967 1.08644 -0.122383
2.26036 1.14141 -0.138745
2.27047 1.19569 -0.156326
2.27998 1.24926 -0.175155
2.28885 1.30211 -0.195256
2.29706 1.35423 -0.216655
2.30457 1.40559 -0.239376
2.31133 1.4562 -0.263443
2.31732 1.50604 -0.28888
2.03634 1.2287 -0.125774
2.04451 1.26687 -0.136414
2.05239 1.30474 -0.147579
2.05998 1.34232 -0.159277
2.06727 1.37959 -0.171518
2.07424 1.41656 -0.18431
2.0809 1.45322 -0.19766
2.08722 1.48957 -0.211578
2.09321 1.52561 -0.22607
2.09883 1.56133 -0.241146
1.84749 1.4426 -0.143425
1.85185 1.4622 -0.148986
1.85613 1.48172 -0.154678
1.86033 1.50118 -0.160503
1.86445 1.52056 -0.166461
1.86848 1.53986 -0.172553
1.87242 1.5591 -0.178782
1.87628 1.57826 -0.185147
1.88005 1.59734 -0.19165
1.88373 1.61635 -0.198292
4 1 -1
3.61 1.21 -1
3.24 1.44 -1
2.89 1.69 -1
2.56 1.96 -1
2.25 2.25 -1
1.96 2.56 -1
1.69 2.89 -1
1.44 3.24 -1
1.21 3.61 -1
3.7239 1.13028 -0.864013
3.39359 1.31492 -0.867528
3.07816 1.51702 -0.870187
2.778 1.73623 -0.872049
2.49342 1.97224 -0.873151
2.22473 2.22473 -0.873516
1.97224 2.49342 -0.873151
1.73623 2.778 -0.872049
1.51702 3.07816 -0.870187
1.31492 3.39359 -0.867528
3.46828 1.23613 -0.743731
3.18943 1.39921 -0.748692
2.9219 1.57666 -0.752476
2.66613 1.76809 -0.75514
2.42249 1.97311 -0.756723
2.19136 2.19136 -0.757248
1.97311 2.42249 -0.756723
1.76809 2.66613 -0.75514
1.57666 2.9219 -0.752476
1.39921 3.18943 -0.748692
3.22623 1.32306 -0.636968
2.99306 1.46668 -0.642066
2.76854 1.62153 -0.645979
2.553 1.78728 -0.648746
2.34679 1.96361 -0.650395
2.15022 2.15022 -0.650943
1.96361 2.34679 -0.650395
1.78728 2.553 -0.648746
1.62153 2.76854 -0.645979
1.46668 2.99306 -0.642066
2.99315 1.39536 -0.542012
2.80143 1.52043 -0.546484
2.61617 1.65382 -0.549933
2.43762 1.79529 -0.552381
2.26603 1.94464 -0.553843
2.10163 2.10163 -0.55433
1.94464 2.26603 -0.553843
1.79529 2.43762 -0.552381
1.65382 2.61617 -0.549933
1.52043 2.80143 -0.546484
2.76602 1.45641 -0.457508
2.61242 1.56303 -0.460983
2.46347 1.67542 -0.463673
2.3193 1.79346 -0.465587
2.18007 1.91701 -0.466733
2.04592 2.04592 -0.467114
1.91701 2.18007 -0.466733
1.79346 2.3193 -0.465587
1.67542 2.46347 -0.463673
1.56303 2.61242 -0.460983
2.54288 1.50893 -0.382368
2.42465 1.5966 -0.384754
2.30952 1.68795 -0.386606
2.19755 1.78292 -0.387926
2.08883 1.88144 -0.388716
1.98344 1.98344 -0.38898
1.88144 2.08883 -0.388716
1.78292 2.19755 -0.387926
1.68795 2.30952 -0.386606
1.5966 2.42465 -0.384754
2.32248 1.55511 -0.31571
2.23719 1.62292 -0.317107
2.15372 1.69279 -0.318192
2.07209 1.7647 -0.318966
1.99234 1.83861 -0.31943
1.9145 1.9145 -0.319585
1.83861 1.99234 -0.31943
1.7647 2.07209 -0.318966
1.69279 2.15372 -0.318192
1.62292 2.23719 -0.317107
2.10409 1.59674 -0.256812
2.04946 1.64346 -0.257442
1.99567 1.6911 -0.257931
1.94272 1.73965 -0.258281
1.89064 1.7891 -0.258491
1.83943 1.83943 -0.258561
1.7891 1.89064 -0.258491
1.73965 1.94272 -0.258281
1.6911 1.99567 -0.257931
1.64346 2.04946 -0.257442
1.88732 1.63529 -0.205075
1.86112 1.65948 -0.205231
1.83513 1.6839 -0.205352
1.80937 1.70854 -0.205439
1.78383 1.73341 -0.205491
1.75851 1.75851 -0.205509
1.73341 1.78383 -0.205491
1.70854 1.80937 -0.205439
1.6839 1.83513 -0.205352
1.65948 1.86112 -0.205231
1 4 -1
0.99 4 -0.81
0.96 4 -0.64
0.91 4 -0.49
0.84 4 -0.36
0.75 4 -0.25
0.64 4 -0.16
0.51 4 -0.09
0.36 4 -0.04
0.19 4 -0.01
1.13028 3.7239 -0.864013
1.09292 3.73105 -0.709022
1.04132 3.73545 -0.569646
0.97556 3.73754 -0.445809
0.895782 3.73771 -0.337422
0.802153 3.7363 -0.244384
0.694892 3.7336 -0.166578
0.574265 3.72988 -0.103867
0.440599 3.72537 -0.0560925
0.294293 3.72032 -0.0230621
1.23613 3.46828 -0.743731
1.18109 3.47656 -0.619
1.11613 3.48121 -0.50619
1.04139 3.48275 -0.405186
0.957019 3.48164 -0.315861
0.863217 3.4783 -0.238074
0.760239 3.47309 -0.17167
0.648387 3.46632 -0.116469
0.528022 3.45831 -0.0722692
0.399564 3.44934 -0.0388356
1.32306 3.22623 -0.636968
1.25822 3.23245 -0.538384
1.18669 3.23516 -0.448625
1.10858 3.2348 -0.367569
1.02402 3.23177 -0.295088
0.93319 3.22642 -0.231044
0.836289 3.21908 -0.175285
0.733561 3.21003 -0.127643
0.625285 3.19955 -0.0879324
0.511779 3.18786 -0.0559446
1.39536 2.99315 -0.542012
1.32721 2.99598 -0.465948
1.25472 2.99588 -0.396147
1.17797 2.99318 -0.332506
1.09704 2.98816 -0.274919
1.01207 2.98108 -0.223268
0.923185 2.97218 -0.177433
0.830544 2.96167 -0.137279
0.734328 2.94975 -0.102663
0.634734 2.93659 -0.0734289
1.45641 2.76602 -0.457508
1.39035 2.76533 -0.400714
1.32161 2.76248 -0.348115
1.25024 2.75764 -0.299637
1.1763 2.75101 -0.2552
1.09986 2.74274 -0.214724
1.02099 2.73298 -0.178121
0.939781 2.72189 -0.145301
0.856331 2.70957 -0.116168
0.770743 2.69614 -0.0906176
1.50893 2.54288 -0.382368
1.44946 2.53935 -0.341901
1.38846 2.53439 -0.304017
1.32596 2.52809 -0.26867
1.26197 2.52054 -0.235811
1.19654 2.51184 -0.205391
1.1297 2.50206 -0.177359
1.06148 2.49129 -0.151661
0.991939 2.47959 -0.128242
0.921111 2.46701 -0.107044
1.55511 2.32248 -0.31571
1.50604 2.31732 -0.28888
1.4562 2.31133 -0.263443
1.40559 2.30457 -0.239376
1.35423 2.29706 -0.216655
1.30211 2.28885 -0.195256
1.24926 2.27998 -0.175155
1.19569 2.27047 -0.156326
1.14141 2.26036 -0.138745
1.08644 2.24967 -0.122383
1.59674 2.10409 -0.256812
1.56133 2.09883 -0.241146
1.52561 2.09321 -0.22607
1.48957 2.08722 -0.211578
1.45322 2.0809 -0.19766
1.41656 2.07424 -0.18431
1.37959 2.06727 -0.171518
1.34232 2.05998 -0.159277
1.30474 2.05239 -0.147579
1.26687 2.04451 -0.136414
1.63529 1.88732 -0.205075
1.61635 1.88373 -0.198292
1.59734 1.88005 -0.19165
1.57826 1.87628 -0.185147
1.5591 1.87242 -0.178782
1.53986 1.86848 -0.172553
1.52056 1.86445 -0.166461
1.50118 1.86033 -0.160503
1.48172 1.85613 -0.154678
1.4622 1.85185 -0.148986
0 4 0
-8.06321e-017 3.6 -1.45159e-033
-7.96679e-017 3.2 -1.16252e-033
4.06955e-017 2.8 -2.27455e-034
0 2.4 0
-4.62751e-017 2 -1.24262e-034
2.54976e-017 1.6 -2.08231e-035
-2.85308e-017 1.2 -1.23676e-035
1.45271e-016 0.8 -1.18515e-034
-2.11713e-016 0.4 -5.19569e-035
0.135829 3.71496 -0.00454672
0.134347 3.36125 -0.00377947
0.136081 3.00866 -0.00309776
0.140908 2.65744 -0.00249027
0.148763 2.30785 -0.0019492
0.159644 1.96017 -0.00146978
0.173608 1.61474 -0.00105008
0.190771 1.27191 -0.000691034
0.211313 0.932102 -0.000396658
0.235489 0.595819 -0.000174628
0.263507 3.43965 -0.0158965
0.26685 3.13197 -0.0134892
0.274353 2.82611 -0.0113097
0.285942 2.52235 -0.00933293
0.301597 2.22103 -0.00754154
0.321352 1.9225 -0.00592462
0.345296 1.62713 -0.00447757
0.373576 1.33537 -0.00320209
0.406397 1.04769 -0.00210673
0.444034 0.764638 -0.00120779
0.393404 3.17519 -0.0314453
0.403773 2.91276 -0.0272276
0.418104 2.65244 -0.0233432
0.436391 2.39448 -0.0197629
0.458662 2.13916 -0.0164658
0.484977 1.8868 -0.0134384
0.515432 1.63771 -0.0106749
0.55016 1.39227 -0.00817677
0.589335 1.15086 -0.00595344
0.633174 0.913928 -0.00402322
0.53198 2.92236 -0.0494045
0.54906 2.70394 -0.0436402
0.569397 2.48759 -0.0382489
0.593026 2.27349 -0.0332054
0.619995 2.06184 -0.0284909
0.65037 1.85288 -0.0240934
0.684236 1.64682 -0.0200072
0.721695 1.44392 -0.0162328
0.762873 1.24445 -0.0127779
0.807915 1.04871 -0.00965715
0.683128 2.6817 -0.068541
0.705091 2.50566 -0.0617608
0.729453 2.3314 -0.0553301
0.756256 2.15903 -0.0492314
0.785548 1.98869 -0.0434515
0.817384 1.82051 -0.0379814
0.851826 1.65462 -0.0328166
0.888944 1.49119 -0.0279571
0.928818 1.33036 -0.0234071
0.971536 1.1723 -0.0191761
0.849044 2.45363 -0.088005
0.873188 2.31797 -0.080902
0.898909 2.18366 -0.0740792
0.92624 2.05075 -0.0675268
0.955217 1.91932 -0.0612372
0.985874 1.78944 -0.0552051
1.01825 1.66117 -0.0494276
1.05239 1.5346 -0.0439042
1.08833 1.40979 -0.0386367
1.12612 1.28684 -0.0336294
1.03079 2.23844 -0.107214
1.05395 2.14084 -0.100579
1.078 2.04412 -0.094132
1.10297 1.94828 -0.0878684
1.12886 1.85336 -0.0817852
1.1557 1.75939 -0.07588
1.18351 1.6664 -0.0701511
1.2123 1.57442 -0.0645981
1.24211 1.48347 -0.0592214
1.27294 1.39359 -0.0540222
1.2287 2.03634 -0.125774
1.24751 1.97421 -0.120457
1.26671 1.91251 -0.115235
1.28631 1.85124 -0.110108
1.30631 1.79042 -0.105076
1.32673 1.73005 -0.100136
1.34757 1.67015 -0.0952891
1.36884 1.6107 -0.0905345
1.39054 1.55174 -0.0858723
1.41268 1.49326 -0.0813025
1.4426 1.84749 -0.143425
1.45365 1.81797 -0.14031
1.46481 1.78856 -0.137223
1.47606 1.75928 -0.134162
1.48741 1.73011 -0.131128
1.49886 1.70106 -0.12812
1.51041 1.67213 -0.125139
1.52207 1.64333 -0.122185
1.53382 1.61464 -0.119257
1.54568 1.58608 -0.116355
